-71.1 -7439.6 752.5
-89.6 -7441.1 751.5
-107.2 -7437.0 751.5
-126.8 -7443.8 749.2
-152.1 -7467.3 743.8
-177.5 -7496.4 737.1
-205.9 -7536.7 728.3
-238.1 -7587.9 717.2
-976.4 -10413.8 154.7
-1001.8 -10413.3 153.6
-1028.1 -10412.0 152.5
-1057.4 -10422.5 149.2
-1082.8 -10421.6 148.2
-1108.2 -10415.0 148.3
-1132.6 -10408.3 148.3
-1160.9 -10418.3 145.0
-1184.4 -10405.8 146.1
-1212.7 -10415.8 142.8
-1238.1 -10408.6 142.9
-1264.5 -10412.9 140.7
-1292.8 -10417.0 138.5
-1318.2 -10409.7 138.6
-1344.5 -10413.8 136.4
-1370.9 -10412.0 135.3
-1400.2 -10421.3 132.0
-1423.6 -10408.4 133.2
-1451.0 -10412.2 130.9
-1478.3 -10415.6 128.9
-1504.7 -10413.4 127.8
-1530.1 -10406.0 127.8
-1559.4 -10414.7 124.5
-1588.7 -10423.5 121.2
-1611.1 -10410.2 122.3
-1635.5 -10402.4 122.3
-1663.9 -10405.3 120.2
-1692.2 -10408.4 118.0
-1722.5 -10416.7 114.7
-1746.9 -10408.7 114.8
-1776.2 -10411.2 112.6
-1800.6 -10408.4 111.5
-1828.9 -10411.2 109.3
-1853.3 -10402.6 109.3
-1885.5 -10415.9 105.0
-1910.0 -10407.6 105.0
-1934.4 -10398.9 105.0
-1958.8 -10390.3 105.1
-1983.2 -10381.8 105.1
-2016.4 -10394.4 100.7
-694.1 -6629.1 868.8
-716.6 -6645.1 864.4
-699.0 -6547.6 883.3
-712.7 -6536.5 884.4
-730.3 -6536.1 883.3
-751.8 -6546.5 880.0
-773.2 -6556.8 876.7
-784.0 -6540.1 878.9
-803.5 -6545.2 876.7
-819.1 -6539.2 876.8
-834.8 -6533.1 876.8
-850.4 -6527.1 876.8
-862.1 -6515.9 877.9
-877.7 -6509.5 877.9
-885.5 -6481.9 882.5
-880.7 -6428.0 892.3
-788.9 -6155.0 947.7
-779.1 -6090.3 959.9
-760.5 -6004.7 976.5
-765.4 -5977.6 981.0
-756.6 -5913.1 993.2
-767.4 -5896.6 995.4
-780.1 -5890.8 995.4
-777.1 -5847.8 1003.2
-791.8 -5841.8 1003.2
-809.4 -5846.5 1001.0
-833.8 -5867.1 995.4
-800.6 -5750.1 1018.7
-821.1 -5759.9 1015.5
-838.7 -5764.5 1013.2
-849.4 -5753.2 1014.3
-892.4 -5810.2 1001.1
-949.0 -5903.8 980.0
-946.1 -5860.8 987.8
-906.1 -5734.0 1013.3
-1062.3 -6041.7 946.9
-1217.6 -6343.7 881.6
-1166.8 -6195.7 911.5
-1115.0 -6042.7 942.6
-1150.2 -6083.1 932.6
-986.1 -5696.3 1013.3
-1113.1 -5929.0 962.4
-1354.3 -6405.9 857.1
-1385.5 -6429.4 850.5
-1437.3 -6499.9 833.8
-1447.1 -6482.1 836.0
-1467.6 -6484.9 833.8
-1440.2 -6389.6 852.7
-1545.7 -6567.7 812.8
-1553.5 -6544.7 816.2
-1600.4 -6598.7 802.9
-1613.1 -6585.6 804.0
-1615.0 -6552.2 809.5
-1032.0 -5364.9 1064.3
-1037.9 -5343.0 1067.7
-1029.1 -5295.6 1076.5
-1019.3 -5248.0 1085.4
-1046.7 -5267.0 1079.9
-1041.8 -5230.1 1086.6
-1056.4 -5228.6 1085.4
-1047.7 -5181.4 1094.3
-1049.6 -5154.3 1098.8
-1052.5 -5132.6 1102.1
-1064.3 -5126.2 1102.1
-1084.8 -5134.7 1098.8
-1099.4 -5133.0 1097.7
-1132.6 -5166.7 1088.8
-1148.2 -5164.8 1087.7
-1154.1 -5148.1 1089.9
-1162.9 -5136.2 1091.0
-1201.0 -5174.7 1081.1
-1261.5 -5252.8 1062.3
-1249.8 -5205.9 1071.1
-1836.7 -6208.3 847.4
-1866.0 -6224.7 841.9
-1876.8 -6211.4 843.0
-1863.1 -6153.0 854.1
-1814.3 -6035.1 878.4
-1800.6 -5977.2 889.5
-1775.2 -5904.3 903.9
-1864.1 -6024.8 875.2
-1815.2 -5907.4 899.5
-1665.8 -5627.7 960.4
-1703.9 -5658.9 951.6
-1751.8 -5709.9 938.3
-1676.6 -5554.2 971.5
-1730.3 -5615.0 956.0
-2024.2 -6062.4 853.0
-2068.2 -6102.3 842.0
-2109.2 -6137.6 832.0
-2105.3 -6099.0 838.7
-2145.3 -6128.9 829.8
-2152.1 -6110.2 832.0
-2122.9 -6033.0 847.5
-1752.7 -5417.3 986.0
-1764.5 -5409.1 986.0
-1777.1 -5400.9 986.0
-1783.0 -5382.8 988.2
-1819.1 -5408.2 980.5
-1825.0 -5390.2 982.7
-1846.5 -5396.3 979.4
-1856.2 -5382.9 980.5
-1827.9 -5312.0 994.9
-1874.8 -5356.3 982.7
-1870.9 -5323.8 988.3
-1810.4 -5205.5 1013.7
-1805.5 -5173.4 1019.2
-1795.7 -5131.9 1027.1
-1803.5 -5118.6 1028.1
-1854.3 -5167.3 1014.8
-1854.3 -5139.6 1019.3
-1875.8 -5145.3 1016.0
-1871.9 -5113.2 1021.6
-1902.1 -5133.0 1014.8
-1931.4 -5147.9 1009.3
-1941.2 -5134.3 1010.5
-2185.4 -5453.5 932.9
-2268.4 -5542.5 909.7
-2447.1 -5761.6 855.4
-2460.7 -5751.5 855.5
-2483.2 -5755.8 852.1
-2487.1 -5731.7 855.4
-2514.5 -5740.3 851.0
-2526.2 -5730.3 851.0
-2530.1 -5706.3 854.3
-2550.6 -5705.3 852.1
-2542.8 -5667.6 858.7
-2583.8 -5694.1 849.9
-2594.5 -5679.1 851.0
-2475.4 -5494.9 893.1
-2546.7 -5562.8 874.3
-2491.0 -5461.3 896.4
-2622.9 -5606.1 858.8
-2585.7 -5532.3 874.2
-2612.1 -5540.0 869.8
-2654.1 -5566.0 861.0
-2638.5 -5519.3 869.9
-2683.4 -5549.8 859.9
-2657.0 -5489.6 872.1
-2653.1 -5456.5 877.6
-2640.4 -5414.8 885.4
-2692.2 -5453.6 873.2
-2646.3 -5371.7 890.9
-2670.7 -5374.6 887.5
-2703.9 -5391.0 880.9
-2684.4 -5340.5 890.9
-2689.3 -5321.0 893.1
-2705.9 -5314.8 892.0
-2611.1 -5176.4 924.1
-2668.8 -5218.7 910.8
-2639.5 -5159.9 923.0
-2591.6 -5079.3 940.7
-2611.1 -5077.7 938.5
-2634.6 -5080.4 935.1
-2661.9 -5087.6 930.7
-2673.6 -5077.1 930.7
-2670.7 -5049.2 935.2
-2685.4 -5043.3 934.0
-2703.9 -5041.4 931.8
-2716.6 -5030.7 931.8
-2740.0 -5032.8 928.5
-2746.9 -5018.3 929.5
-2782.0 -5033.3 923.0
-2793.8 -5022.4 923.0
-2805.5 -5011.7 922.9
-2832.8 -5018.0 918.5
-2848.4 -5011.4 917.4
-2856.2 -4996.2 918.5
-2898.2 -5019.3 909.6
-2917.8 -5016.8 907.4
-2938.3 -5013.9 905.2
-2957.8 -5011.4 903.0
-2985.2 -5017.0 898.6
-3008.6 -5018.3 895.2
-3027.1 -5015.4 893.0
-3042.8 -5008.3 891.9
-3072.1 -5013.5 887.4
-3091.6 -5010.1 885.3
-3114.1 -5011.5 881.9
-3142.4 -5016.3 877.5
-3161.9 -5012.9 875.2
-3184.4 -5013.7 871.8
-3205.9 -5010.2 869.6
-3238.1 -5018.7 864.1
-3260.5 -5019.3 860.8
-3284.0 -5019.6 857.5
-3309.4 -5019.8 854.1
-3326.0 -5012.0 853.0
-3356.2 -5020.1 847.5
-3388.5 -5028.2 842.0
-3404.1 -5020.1 840.8
-3432.4 -5024.1 836.3
-3456.8 -5023.6 833.1
-3480.3 -5023.2 829.7
-3522.3 -5038.6 822.0
-3536.9 -5030.2 820.8
-3562.3 -5029.6 817.5
-3598.4 -5040.8 810.9
-3633.6 -5051.9 804.2
-3663.9 -5054.7 799.8
-3704.9 -5069.4 792.0
-3758.6 -5095.6 780.9
-3762.5 -5074.7 783.2
-3762.5 -5049.9 786.5
-3778.1 -5040.6 785.4
-3902.1 -5132.6 755.4
-4855.3 -5974.6 510.6
-6769.3 -7681.1 16.6
-6782.0 -7657.2 17.6
-5302.5 -6292.5 405.3
-5210.7 -6179.9 433.0
-5203.9 -6144.2 438.5
-5196.1 -6108.8 444.0
-5189.3 -6073.2 449.5
-5168.8 -6026.2 458.4
-5148.2 -5979.8 467.2
-5154.1 -5955.6 469.4
-5180.5 -5950.6 466.1
-5224.4 -5960.5 458.4
-5234.2 -5940.1 459.4
-5252.7 -5927.2 458.3
-5266.4 -5910.3 458.3
-5301.6 -5912.5 452.7
-5254.7 -5843.9 468.3
-5031.1 -5628.0 528.1
-5026.2 -5597.4 532.5
-5024.2 -5570.2 535.7
-5047.7 -5561.4 533.5
-5046.7 -5534.2 536.8
-5041.8 -5503.5 541.3
-5045.7 -5480.3 543.5
-5058.4 -5464.0 543.5
-5057.4 -5437.1 546.7
-5047.7 -5403.1 552.3
-5051.6 -5379.6 554.5
-5114.1 -5402.6 542.2
-5158.0 -5411.4 534.5
-5175.6 -5398.3 533.4
-5170.7 -5367.8 537.8
-5177.5 -5347.8 538.9
-5158.0 -5306.8 546.6
-5170.7 -5290.3 546.6
-5155.1 -5253.0 553.2
-5176.6 -5243.4 550.9
-5171.7 -5212.9 555.4
-5178.5 -5193.0 556.5
-5176.6 -5166.4 559.8
-5184.4 -5146.4 560.9
-5188.3 -5123.0 563.1
-5184.4 -5096.4 566.4
-5178.5 -5066.1 570.8
-5185.4 -5046.3 571.9
-5183.4 -5019.5 575.2
-5194.1 -5003.2 575.1
-5198.0 -4979.8 577.4
-5209.8 -4963.2 577.4
-5205.9 -4936.8 580.6
-5203.9 -4910.3 583.9
-5224.4 -4900.2 581.7
-5232.2 -4880.2 582.8
-5238.1 -4860.5 583.9
-5263.5 -4853.7 580.6
-5280.1 -4840.1 579.4
-5289.8 -4823.6 579.4
-5311.3 -4813.3 577.2
-5318.2 -4793.2 578.2
-5343.6 -4786.2 574.8
-5344.5 -4762.9 577.1
-5370.9 -4755.5 573.7
-5387.5 -4741.6 572.6
-5397.3 -4724.8 572.6
-5422.7 -4717.2 569.3
-5433.4 -4700.2 569.2
-5449.0 -4686.2 568.1
-5498.8 -4694.3 559.2
-5499.8 -4670.6 561.4
-5526.2 -4662.6 558.1
-5540.8 -4648.6 556.8
-5561.3 -4637.4 554.6
-5597.5 -4635.3 549.1
-5617.0 -4624.1 546.9
-5632.6 -4609.6 545.7
-5716.6 -4637.7 529.1
-5727.3 -4619.9 529.1
-5757.6 -4614.2 524.5
-5870.9 -4659.7 501.2
-5868.9 -4632.3 504.6
-5882.6 -4617.3 503.4
-5874.8 -4587.1 507.8
-5890.4 -4572.0 506.7
-5895.3 -4551.0 507.8
-5901.2 -4529.8 508.8
-5916.8 -4514.5 507.8
-5932.4 -4499.0 506.6
-6036.9 -4536.1 485.5
-6215.6 -4615.9 447.8
-6342.6 -4663.1 422.3
-6401.2 -4672.8 411.1
-6422.7 -4659.0 408.9
-6479.3 -4665.1 398.9
-6544.7 -4676.9 386.7
-6600.4 -4682.5 376.6
-6581.8 -4645.7 383.3
-6608.2 -4634.1 379.9
-6659.0 -4636.7 371.0
-6674.6 -4619.5 369.9
-6735.2 -4626.9 358.7
-6776.2 -4623.4 352.0
-6836.7 -4630.5 340.9
-6864.1 -4618.0 337.6
-6930.5 -4627.5 325.3
-7032.0 -4655.4 305.4
-7017.4 -4621.1 310.8
-8910.0 -5592.5 -99.6
-8917.8 -5564.4 -98.5
-8914.8 -5531.2 -95.3
-8922.7 -5503.1 -94.2
-8925.6 -5472.3 -92.0
-8933.4 -5444.3 -91.0
-8955.9 -5424.0 -93.2
-8949.0 -5388.0 -88.8
-8960.7 -5362.9 -88.9
-8943.2 -5321.9 -82.2
-8956.8 -5295.0 -82.6
-8957.8 -5264.7 -80.4
-8959.8 -5234.0 -78.2
-8972.5 -5208.4 -78.2
-8973.4 -5178.0 -76.1
-8986.1 -5152.5 -76.1
-8993.0 -5124.3 -75.1
-8993.9 -5093.8 -72.9
-8990.0 -5061.1 -69.6
-9001.8 -5035.1 -69.6
-9013.5 -5009.6 -69.7
-9009.6 -4976.7 -66.5
-9032.0 -4956.0 -68.7
-9032.0 -4925.6 -66.5
-9044.7 -4899.6 -66.5
-9066.2 -4879.0 -68.8
-9082.8 -4855.4 -70.0
-9090.6 -4827.1 -68.9
-9095.5 -4799.1 -67.8
-9101.4 -4770.9 -66.7
-9101.4 -4740.4 -64.6
-9090.6 -4705.5 -60.2
-9102.3 -4679.6 -60.2
-9113.1 -4653.9 -60.2
-9113.1 -4623.2 -58.1
-9108.2 -4590.8 -54.8
-9102.3 -4558.3 -51.6
-9124.8 -4536.7 -53.7
-9118.0 -4504.4 -50.5
-9123.8 -4476.2 -49.4
-9114.1 -4441.5 -45.0
-9118.9 -4413.4 -43.9
-9128.7 -4387.4 -44.0
-9128.7 -4357.3 -41.8
-9127.7 -4327.0 -39.7
-9136.5 -4301.2 -39.7
-9130.7 -4269.0 -36.5
-9141.4 -4242.9 -36.4
-9141.4 -4212.7 -34.2
-9144.3 -4184.8 -33.3
-9149.2 -4156.7 -32.2
-9137.5 -4122.6 -27.8
-9146.3 -4096.7 -27.8
-9145.3 -4066.8 -25.7
-9160.9 -4042.7 -26.8
-9142.4 -4006.9 -21.4
-9135.5 -3975.0 -18.0
-9145.3 -3948.8 -18.1
-9155.1 -3923.0 -18.1
-9146.3 -3891.2 -14.8
-9156.1 -3865.2 -14.9
-9154.1 -3835.3 -12.7
-9174.6 -3813.1 -14.9
-9170.7 -3783.3 -12.8
-9163.9 -3751.7 -9.5
-9173.6 -3725.3 -9.5
-9180.5 -3699.6 -9.6
-9158.0 -3662.3 -3.0
-8626.8 -3455.1 107.0
-8175.6 -3277.9 200.3
-8122.9 -3234.4 212.4
-8093.6 -3198.3 220.2
-8067.2 -3164.2 226.8
-8041.8 -3130.2 233.4
-8027.1 -3099.7 237.8
-8018.4 -3071.0 241.1
-8019.3 -3046.2 242.1
-8004.7 -3015.9 246.5
-8011.5 -2992.6 246.5
-7985.2 -2959.4 253.1
-7987.1 -2934.3 254.2
-7982.2 -2907.8 256.4
-7972.5 -2879.7 259.7
-7968.6 -2853.2 261.9
-7963.7 -2826.7 264.0
-7965.6 -2801.7 265.1
-7970.5 -2778.9 265.0
-7954.9 -2749.3 269.5
-7955.9 -2724.4 270.5
-7961.7 -2701.3 270.5
-7951.0 -2673.5 273.8
-7952.0 -2648.8 274.8
-7942.2 -2621.0 278.1
-7948.0 -2598.0 278.0
-7953.9 -2574.8 278.0
-7949.0 -2548.5 280.2
-7953.9 -2525.6 280.1
-7954.9 -2500.9 281.2
-7950.0 -2474.8 283.4
-7955.9 -2451.6 283.3
-7950.0 -2425.8 285.5
-7960.7 -2403.9 284.4
-7950.0 -2376.5 287.7
-7953.9 -2353.5 287.5
-7960.7 -2330.2 287.5
-7959.8 -2305.8 288.6
-7971.5 -2283.8 287.5
-7970.5 -2259.4 288.5
-7976.4 -2235.9 288.5
-7981.2 -2212.9 288.4
-7985.2 -2189.7 288.3
-7980.3 -2163.8 290.6
-7985.2 -2140.6 290.5
-7989.1 -2117.5 290.4
-7993.9 -2094.2 290.4
-8010.5 -2073.3 288.1
-8015.4 -2049.9 288.1
-8019.3 -2026.7 288.0
-8029.1 -2004.5 286.8
-8035.0 -1980.9 286.8
-8048.6 -1960.1 284.5
-8070.1 -1939.9 281.1
-8081.8 -1917.5 280.0
-8124.8 -1901.9 272.1
-8167.8 -1886.0 264.2
-8229.3 -1873.2 253.1
-8313.3 -1864.0 237.5
-8462.7 -1867.7 208.4
-8586.7 -1865.0 185.1
-8618.9 -1845.4 179.4
-8662.9 -1827.8 171.5
-8638.5 -1798.0 177.1
-8672.7 -1777.8 171.5
-8788.9 -1772.3 149.2
-8883.6 -1762.6 131.3
-9176.6 -1785.5 74.5
-9163.9 -1756.5 77.8
-9178.5 -1732.5 75.5
-9187.3 -1707.3 74.3
-9181.4 -1679.1 76.5
-9179.5 -1652.2 77.6
-9177.5 -1625.4 78.6
-9180.5 -1599.0 78.6
-9172.7 -1571.5 80.7
-9175.6 -1545.3 80.6
-9173.6 -1518.4 81.7
-9172.7 -1491.4 82.8
-9158.0 -1463.1 86.0
-9172.7 -1438.6 83.8
-9176.6 -1412.4 83.7
-9191.2 -1387.7 81.4
-9198.0 -1362.6 80.2
-9196.1 -1335.6 81.2
-9188.3 -1307.9 83.4
-9206.8 -1284.2 80.0
-9193.2 -1255.7 83.3
-9202.0 -1230.3 82.2
-9200.0 -1203.4 83.2
-9201.0 -1177.4 83.1
-9193.2 -1150.1 85.3
-9190.2 -1123.1 86.4
-9198.0 -1097.6 85.2
-9211.7 -1072.6 82.9
-9213.7 -1046.4 82.8
-9227.3 -1021.4 80.5
-9224.4 -994.6 81.6
-9231.2 -969.0 80.4
-9234.2 -942.6 80.3
-9230.3 -916.1 81.4
-9226.4 -889.3 82.4
-9229.3 -862.9 82.3
-9229.3 -836.8 82.3
-9232.2 -810.6 82.2
-9228.3 -783.7 83.3
-9241.0 -758.5 81.0
-9243.0 -732.1 80.9
-9243.9 -705.9 80.9
-7009.6 -532.6 515.5
-6987.1 -510.2 519.7
-6872.9 -482.3 542.0
-6833.8 -459.1 549.8
-6754.7 -434.0 565.3
-6743.0 -413.3 567.5
-6721.5 -391.6 571.9
-6711.7 -370.7 574.1
-6688.3 -349.4 578.5
-6695.1 -329.3 577.3
-6660.9 -307.6 584.0
-6649.2 -287.2 586.1
-6638.5 -266.7 588.3
-7327.9 -244.7 603.2
-7315.2 -223.2 606.1
-7293.8 -202.5 610.6
-7294.7 -182.7 610.5
-7282.0 -162.5 612.7
-7270.3 -142.6 614.9
-7248.8 -122.2 619.3
-7254.7 -102.6 618.2
-7248.8 -82.8 619.2
-7271.3 -63.3 614.8
-7288.9 -43.6 611.4
-7287.9 -24.0 611.3
-7293.8 -4.0 610.2
-7293.8 15.8 610.2
-7283.0 35.8 612.3
-6480.3 74.7 549.5
-6492.0 94.5 547.1
-6480.3 114.2 549.5
-6485.2 133.9 548.2
-6478.3 153.6 549.3
-6459.8 192.6 552.7
-6442.2 231.8 556.0
-6441.2 251.4 556.0
-6423.6 270.6 559.5
-6428.5 290.3 558.2
-6433.4 310.1 557.1
-6442.2 349.7 554.6
-6422.7 388.3 557.9
-6433.4 408.3 555.6
-7205.9 446.9 554.3
-7204.9 467.8 555.0
-7191.2 486.7 557.3
-7191.2 506.4 557.3
-7176.6 525.3 559.5
-7181.4 545.2 558.3
-7202.9 566.3 553.7
-7207.8 586.3 552.4
-7188.3 604.7 555.9
-7187.3 624.5 555.8
-7202.9 645.2 552.3
-7194.1 664.4 553.4
-7199.0 684.5 552.2
-7208.8 705.0 549.9
-7217.6 725.6 547.5
-7221.5 745.6 546.3
-7219.5 765.3 546.2
-7234.2 786.6 542.7
-7249.8 807.7 539.1
-7276.2 830.3 533.3
-7274.2 850.1 533.3
-7289.8 871.7 529.7
-7297.7 892.6 527.4
-7301.6 912.9 526.1
-7327.9 935.9 520.3
-7330.9 956.3 519.1
-7328.9 976.5 519.1
-7349.4 999.0 514.4
-7362.1 1020.8 510.8
-7366.0 1041.5 509.6
-7398.2 1065.6 502.6
-7402.1 1086.6 501.4
-7443.2 1112.3 492.0
-7481.2 1137.6 483.8
-7558.4 1168.3 467.5
-9585.7 1456.2 52.3
-9571.1 1480.1 54.5
-9573.0 1506.2 53.3
-9569.1 1531.4 53.3
-9582.8 1559.1 49.7
-9515.4 1575.3 62.5
-9500.8 1598.8 64.7
-9491.0 1623.1 65.7
-9480.3 1647.2 66.9
-9477.3 1672.5 66.9
-9500.8 1701.9 61.0
-9495.9 1726.8 60.9
-9492.0 1752.0 60.9
-9454.9 1771.6 67.8
-9460.7 1798.4 65.4
-9451.0 1822.6 66.5
-9463.7 1850.4 62.9
-9459.8 1875.5 62.9
-9443.2 1898.3 65.1
-9432.4 1922.5 66.2
-9439.3 1949.3 63.9
-9422.7 1972.2 66.1
-9412.9 1996.2 67.2
-9412.9 2022.1 66.0
-9418.8 2049.0 63.6
-9409.0 2072.9 64.7
-9387.5 2094.6 68.2
-9398.2 2122.9 64.6
-9393.4 2147.7 64.6
-9393.4 2173.5 63.3
-9388.5 2198.6 63.2
-9382.6 2223.3 63.2
-9366.0 2245.9 65.4
-9376.8 2274.2 61.9
-9355.3 2295.5 65.3
-9348.4 2320.1 65.3
-9360.2 2348.5 61.7
-9343.6 2370.9 64.0
-9336.7 2395.5 63.9
-9342.6 2422.9 61.5
-9326.0 2445.2 63.8
-9330.9 2472.4 61.4
-9324.0 2497.1 61.3
-9307.4 2519.2 63.6
-9301.6 2543.8 63.5
-9305.5 2571.1 61.1
-9287.9 2593.1 63.4
-9293.8 2620.6 61.0
-9292.8 2646.6 59.8
-9263.5 2665.3 64.3
-9274.2 2694.4 60.8
-9250.8 2714.7 64.2
-9249.8 2740.8 63.0
-9264.5 2770.9 58.3
-9246.9 2792.5 60.5
-9228.3 2814.0 62.8
-9228.3 2840.0 61.5
-9227.3 2866.2 60.4
-9219.5 2890.7 60.3
-9211.7 2915.0 60.2
-9215.6 2942.7 57.8
-9208.8 2967.1 57.8
-9196.1 2989.8 58.9
-9183.4 3012.8 59.9
-9192.2 3041.9 56.3
-9179.5 3064.9 57.4
-9177.5 3090.7 56.2
-9164.8 3113.4 57.3
-9146.3 3134.6 59.6
-9149.2 3162.1 57.2
-9147.3 3188.2 56.0
-9139.5 3212.4 55.9
-9126.8 3235.1 57.0
-9107.2 3255.8 59.3
-9105.3 3281.9 58.1
-9097.5 3306.0 58.0
-9088.7 3330.2 57.9
-9086.7 3356.1 56.7
-9083.8 3382.0 55.5
-9058.4 3400.7 58.9
-9062.3 3428.6 56.5
-9058.4 3454.4 55.2
-9061.3 3482.3 52.9
-8841.6 4333.1 28.2
-8825.0 4354.2 29.4
-8826.0 4382.3 26.9
-8800.6 4427.4 28.0
-8788.9 4450.8 27.9
-8773.2 4471.9 28.9
-8767.4 4497.8 27.7
-8755.7 4521.1 27.7
-8756.6 4549.3 25.3
-8740.0 4570.4 26.3
-8734.2 4596.3 25.2
-8722.5 4619.4 25.0
-8726.4 4650.0 21.4
-8715.6 4673.5 21.4
-8709.8 4699.3 20.1
-8699.0 4722.5 20.1
-8682.4 4743.4 21.2
-8665.8 4764.1 22.3
-8662.9 4792.2 19.8
-8668.8 4823.1 16.3
-8662.9 4848.9 15.0
-8650.2 4871.7 14.9
-8638.5 4895.0 14.8
-8637.5 4923.4 12.5
-8630.7 4946.6 10.3
-8628.7 4975.0 7.9
-8627.7 5003.5 5.6
-8615.0 5026.4 5.4
-8608.2 5052.1 4.2
-8612.1 5083.3 0.6
-8603.3 5108.9 -0.7
-8591.6 5131.9 -0.7
-8575.0 5152.4 0.4
-8577.0 5183.3 -3.2
-8564.3 5206.4 -3.3
-8551.6 5229.4 -3.3
-8538.9 5252.2 -3.5
-8535.9 5280.5 -5.8
-8523.2 5303.5 -6.0
-8522.3 5331.7 -8.3
-8518.4 5360.2 -10.9
-8516.4 5388.7 -13.2
-8493.9 5405.9 -10.9
-8491.0 5434.5 -13.3
-8486.1 5462.6 -15.7
-8458.8 5477.0 -12.3
-8475.4 5516.7 -19.5
-8461.7 5539.4 -19.6
-8452.9 5565.0 -20.7
-8445.1 5590.7 -22.0
-8442.2 5619.2 -24.3
-8417.8 5636.0 -22.2
-8413.9 5664.4 -24.6
-8410.9 5693.1 -27.0
-8396.3 5715.5 -27.1
-8392.4 5744.0 -29.5
-8378.7 5766.5 -29.5
-8370.9 5792.1 -30.8
-8366.0 5820.4 -33.3
-8347.5 5840.1 -32.2
-8353.3 5874.5 -36.9
-8333.8 5894.0 -35.8
-8325.0 5919.4 -37.1
-8320.1 5947.8 -39.5
-8305.5 5970.3 -39.6
-8286.9 5989.6 -38.5
-8286.9 6021.3 -42.0
-8272.3 6043.5 -42.1
-8252.7 6062.5 -41.1
-8243.0 6088.1 -42.3
-8239.1 6116.5 -44.7
-8227.3 6141.7 -46.0
-8212.7 6164.0 -46.1
-8203.9 6189.3 -47.3
-8202.9 6221.1 -50.9
-8182.4 6239.8 -49.9
-8177.5 6268.3 -52.2
-8167.8 6293.7 -53.5
-8156.1 6318.7 -54.7
-8146.3 6344.1 -56.0
-8136.5 6369.5 -57.2
-8112.1 6384.8 -55.0
-8105.3 6413.2 -57.4
-8099.4 6441.7 -59.8
-8088.7 6466.9 -61.1
-8082.8 6495.3 -63.5
-8080.9 6526.9 -67.1
-8070.1 6552.1 -68.3
-8049.6 6570.5 -67.3
-8038.9 6595.9 -68.5
-8021.3 6649.3 -72.1
-7999.8 6667.6 -71.1
-7968.6 6710.8 -71.3
-7960.7 6739.2 -73.7
-7935.4 6753.9 -71.5
-7894.3 6790.3 -69.2
-7887.5 6818.4 -71.7
-7870.9 6839.9 -71.8
-7837.7 6882.5 -71.9
-7821.1 6903.8 -72.0
-7772.3 6900.6 -63.9
-7725.4 6932.1 -60.6
-7655.1 6911.0 -46.6
-7594.5 6931.1 -39.7
-7550.6 6930.7 -32.8
-7511.5 6933.4 -27.0
-7458.8 6925.2 -17.7
-7438.3 6942.2 -16.6
-7363.1 6915.7 -1.4
-7328.9 6921.4 3.2
-7255.7 6928.8 13.6
-7203.9 6919.6 22.8
-7113.1 6911.5 38.0
-7066.2 6905.4 46.1
-7027.1 6906.4 51.9
-6958.8 6915.6 61.1
-6890.4 6924.1 70.3
-6818.2 6928.5 80.8
-6792.8 6939.7 83.0
-6759.6 6977.4 82.8
-6750.8 7003.7 80.4
-6708.8 7033.5 82.5
-6700.0 7059.7 80.2
-6674.6 7070.6 82.4
-6658.0 7089.2 82.3
-6642.4 7108.0 82.3
-6623.8 7126.0 82.2
-6607.2 7144.7 82.1
-6559.4 7169.6 85.5
-6513.5 7194.5 88.9
-6492.0 7208.9 90.0
-6460.7 7215.1 93.3
-6456.8 7244.9 89.8
-6427.5 7251.2 93.2
-6388.5 7283.2 94.3
-6358.2 7322.8 93.0
-6335.7 7336.7 94.0
-6301.6 7338.3 98.6
-6292.8 7364.1 96.2
-6278.1 7385.6 94.9
-6239.1 7416.9 96.0
-6192.2 7439.6 99.4
-6173.6 7457.2 99.3
-6143.4 7462.3 102.7
-6136.5 7491.8 99.1
-6104.3 7492.7 103.7
-6067.2 7527.1 103.6
-6031.1 7561.4 103.4
-6013.5 7578.3 103.3
-5994.9 7595.2 103.2
-5969.5 7604.1 105.6
-5951.0 7620.9 105.5
-5917.8 7658.7 104.1
-5878.7 7688.2 105.2
-5855.3 7700.5 106.3
-5841.6 7721.3 105.1
-5819.1 7733.8 106.2
-5791.8 7741.5 108.3
-5750.8 7770.3 109.4
-5706.8 7794.6 111.6
-5688.3 7810.8 111.5
-5669.7 7827.3 111.5
-5650.2 7843.2 111.3
-5631.6 7859.3 111.3
-5593.6 7891.5 111.1
-5544.7 7910.5 114.5
-5517.4 7917.6 116.8
-5506.6 7942.2 114.3
-5480.3 7949.3 116.7
-5461.7 7965.2 116.6
-5422.7 7996.4 116.4
-5381.6 8023.3 117.4
-5350.4 8025.3 120.9
-5335.7 8045.2 119.6
-5312.3 8056.2 120.7
-5296.7 8076.0 119.5
-5254.7 8102.2 120.5
-5204.9 8119.0 123.9
-5189.3 8138.7 122.6
-5159.0 8140.4 126.1
-5138.5 8155.2 126.0
-5112.1 8161.1 128.2
-5073.0 8190.7 128.1
-5034.0 8220.4 127.9
-5008.6 8226.2 130.3
-4994.9 8249.7 127.8
-4964.6 8250.4 131.3
-4949.0 8269.8 130.0
-4909.0 8298.8 129.9
-4859.2 8313.7 133.3
-4837.7 8327.8 133.2
-4819.1 8342.2 133.1
-4792.8 8347.1 135.4
-4772.3 8361.2 135.3
-4755.7 8380.0 134.0
-4728.3 8384.7 136.3
-4695.1 8421.8 133.8
-4672.7 8431.4 135.0
-4655.1 8449.9 133.7
-4631.6 8458.9 134.8
-4369.9 8123.1 221.8
-4011.5 7639.5 345.4
-4037.9 7718.1 328.8
-4526.2 8522.5 135.6
-4503.7 8531.4 136.7
-4479.3 8539.9 137.8
-4462.7 8558.2 136.5
-4435.4 8562.0 138.8
-4404.1 8603.0 135.1
-4386.5 8621.0 133.9
-4362.1 8629.4 135.0
-4341.6 8642.5 134.9
-4312.3 8641.1 138.4
-4290.8 8654.1 138.3
-4270.3 8666.9 138.3
-4229.3 8692.9 138.1
-4199.0 8691.0 141.6
-4181.4 8708.7 140.3
-4155.1 8711.6 142.6
-4133.6 8724.4 142.5
-4107.2 8727.1 144.7
-4082.8 8734.8 145.9
-4065.2 8752.3 144.7
-4042.8 8764.6 144.5
-4019.3 8771.9 145.6
-3993.0 8774.5 147.9
-3972.5 8786.8 147.8
-3950.0 8799.0 147.8
-3924.6 8801.3 150.1
-3903.1 8813.5 150.0
-3879.7 8820.6 151.1
-3859.2 8832.7 151.1
-3834.8 8839.6 152.2
-3811.3 8846.4 153.3
-3788.9 8858.2 153.2
-3762.5 8860.3 155.5
-3741.0 8872.0 155.5
-3719.5 8883.6 155.3
-3698.0 8895.0 155.3
-3677.5 8906.6 155.2
-3650.2 8908.2 157.5
-3626.8 8914.6 158.6
-3602.3 8920.9 159.7
-3581.8 8932.6 159.6
-3554.5 8933.5 161.9
-3530.1 8939.8 163.0
-3511.5 8956.0 161.8
-3478.3 8946.7 166.4
-3450.0 8942.8 169.9
-3429.5 8953.7 169.8
-3407.0 8964.8 169.8
-3385.5 8975.5 169.7
-3354.3 8966.0 174.3
-3332.8 8976.8 174.3
-3308.4 8982.4 175.4
-3297.7 9013.5 170.5
-3270.3 9013.9 172.9
-3246.9 9019.3 174.0
-3221.5 9024.6 175.1
-3202.9 9040.4 173.8
-3181.4 9050.7 173.8
-3157.0 9055.9 174.8
-3140.4 9076.6 172.4
-3116.0 9081.8 173.5
-3089.6 9081.5 175.8
-3073.0 9102.0 173.4
-3046.7 9101.9 175.7
-3022.3 9106.7 176.8
-3002.7 9121.9 175.5
-2981.2 9131.8 175.5
-2959.8 9141.7 175.5
-2937.3 9151.6 175.3
-2915.8 9161.4 175.3
-2889.5 9160.7 177.6
-2868.0 9170.4 177.5
-2845.5 9179.9 177.4
-2823.0 9189.5 177.4
-2801.6 9199.1 177.3
-2776.2 9203.3 178.4
-2759.6 9223.3 176.0
-2734.2 9227.4 177.1
-2713.7 9236.8 177.1
-2000.8 7620.1 540.7
-1961.7 7580.2 551.2
-1933.4 7561.2 557.1
-1894.3 7520.9 567.7
-1860.2 7485.9 577.1
-1852.3 7519.7 571.1
-1828.9 7516.1 573.3
-1803.5 7502.3 578.1
-1785.9 7509.3 578.0
-1763.5 7505.7 580.3
-1744.9 7512.9 580.3
-1724.4 7514.5 581.4
-1706.8 7521.6 581.4
-1684.4 7517.7 583.6
-1663.9 7519.1 584.8
-1648.2 7531.3 583.5
-1631.6 7538.3 583.6
-1617.0 7555.6 581.1
-1590.6 7540.7 585.8
-1582.8 7574.3 579.8
-1568.2 7591.7 577.4
-1553.5 7608.9 575.0
-1539.8 7626.4 572.6
-1536.9 7675.9 563.0
-1546.7 7758.0 546.5
-1552.5 7834.9 531.0
-1539.8 7857.5 527.4
-2098.4 9509.1 168.0
-2080.9 9533.3 164.5
-2062.3 9551.8 162.1
-2033.0 9543.3 165.5
-2010.5 9551.0 165.4
-1988.1 9558.6 165.4
-1968.6 9577.2 163.0
-1946.1 9584.6 162.9
-1919.7 9586.7 164.0
-1899.2 9599.5 162.7
-1876.8 9612.1 161.5
-1857.2 9625.1 160.2
-1833.8 9632.5 160.2
-1811.3 9639.8 160.2
-1786.9 9646.7 160.0
-1764.5 9653.8 160.0
-1745.9 9672.0 157.6
-1721.5 9678.8 157.5
-1702.0 9696.8 155.0
-1675.6 9692.8 157.4
-1658.0 9716.3 153.8
-1635.5 9728.3 152.5
-1611.1 9729.6 153.6
-1588.7 9736.3 153.6
-1562.3 9737.4 154.7
-1539.8 9744.1 154.6
-1517.4 9756.1 153.4
-1493.9 9762.5 153.3
-1471.5 9768.9 153.2
-1448.0 9775.4 153.2
-1425.6 9781.8 153.1
-1404.1 9799.0 150.6
-1380.7 9805.2 150.6
-1362.1 9828.1 147.0
-1337.7 9834.0 146.9
-1314.3 9834.7 148.0
-1289.8 9840.5 148.0
-1267.4 9846.7 148.0
-1243.0 9852.3 147.8
-1222.5 9869.4 145.5
-1199.0 9875.4 145.4
-1173.6 9875.1 146.5
-1152.1 9886.7 145.3
-1127.7 9892.2 145.2
-1107.2 9908.9 142.8
-1082.8 9914.4 142.7
-1059.4 9919.7 142.7
-1037.9 9931.0 141.4
-1013.5 9936.2 141.3
-993.0 9952.7 138.9
-967.6 9952.5 140.0
-942.2 9952.0 141.1
-918.8 9957.2 141.1
-896.3 9967.7 139.8
-873.8 9978.4 138.6
-848.4 9983.3 138.5
-827.9 9999.5 136.1
-804.5 10004.5 136.1
-776.2 9997.8 138.3
-759.6 10030.8 132.4
-733.2 10030.0 133.6
-709.8 10034.6 133.6
-685.4 10044.6 132.2
-662.9 10054.9 131.0
-640.4 10065.1 129.7
-617.0 10075.0 128.5
-592.6 10079.3 128.4
-570.1 10089.5 127.1
-545.7 10093.9 127.1
-520.3 10097.7 127.0
-497.9 10107.6 125.8
-476.4 10123.1 123.4
-450.0 10121.3 124.5
-426.6 10130.9 123.2
-403.1 10135.0 123.1
-380.7 10150.3 120.7
-354.3 10142.7 123.0
-332.8 10163.4 119.4
-307.4 10161.5 120.5
-281.1 10153.6 122.8
-259.6 10168.6 120.4
-236.1 10177.9 119.2
-210.7 10170.0 121.5
-183.4 10156.3 124.9
-160.0 10159.7 124.9
-135.5 10163.0 124.8
-110.2 10160.6 125.9
-85.7 10163.8 125.9
-59.4 10155.4 128.2
-34.0 10158.5 128.1
-8.6 10150.1 130.4
12.9 10164.6 128.0
37.3 10167.4 127.9
62.7 10164.5 129.0
87.1 10161.8 130.2
110.5 10164.4 130.1
136.9 10161.3 131.2
160.4 10169.4 130.0
184.8 10172.1 129.9
209.2 10163.3 132.3
233.6 10165.7 132.2
258.0 10168.0 132.1
282.4 10170.4 132.1
308.8 10161.0 134.4
332.2 10163.4 134.3
586.1 7572.5 672.7
607.6 7534.3 681.0
627.1 7524.0 683.2
644.7 7531.2 682.1
663.3 7504.3 688.0
682.8 7511.1 686.7
700.4 7506.7 687.8
718.0 7513.9 686.6
735.5 7532.1 683.0
751.2 7556.3 678.2
769.7 7563.1 677.0
781.4 7644.3 660.4
648.6 10175.3 135.9
673.0 10188.1 133.4
696.5 10183.9 134.6
723.8 10162.1 139.2
745.3 10186.3 134.5
770.7 10176.2 136.8
796.1 10177.1 136.7
820.5 10166.8 139.0
844.9 10167.7 139.0
868.4 10174.5 137.7
893.8 10169.6 138.8
917.2 10170.3 138.8
940.6 10177.0 137.5
965.0 10171.9 138.7
990.4 10166.6 139.8
1014.8 10150.2 143.3
1038.3 10162.2 140.9
1063.7 10162.7 140.8
1087.1 10163.1 140.8
1111.5 10163.6 140.7
1136.9 10152.3 143.0
1161.3 10164.0 140.6
1184.8 10169.9 139.3
1209.2 10164.4 140.5
1233.6 10164.4 140.4
1257.0 10153.1 142.8
1282.4 10170.3 139.1
1306.8 10158.6 141.4
1330.3 10164.4 140.2
1354.7 10164.1 140.1
1378.1 10158.3 141.3
1402.5 10152.1 142.4
1427.0 10157.4 141.2
1451.4 10157.1 141.1
1475.8 10156.5 141.1
1500.2 10150.3 142.2
1523.6 10155.5 141.0
1549.0 10137.4 144.5
1573.4 10142.5 143.2
1596.9 10136.1 144.4
1621.3 10140.9 143.1
1645.7 10140.0 143.0
1669.1 10139.2 143.0
1694.5 10138.3 143.0
1718.0 10143.1 141.7
1743.4 10141.6 141.6
1766.8 10134.8 142.8
1790.2 10133.6 142.8
1814.6 10132.3 142.7
1837.1 10114.0 146.3
1862.5 10123.8 143.8
1886.9 10110.9 146.1
1911.3 10126.7 142.4
1935.7 10119.3 143.6
1958.2 10106.4 146.0
1983.6 10110.2 144.7
2008.0 10108.8 144.7
2031.4 10101.3 145.8
2055.9 10093.5 146.9
2080.3 10097.4 145.7
2103.7 10095.5 145.7
2127.1 10087.8 146.8
2151.6 10085.8 146.7
2175.0 10078.0 147.9
2199.4 10081.6 146.6
2223.8 10079.0 146.5
2248.2 10082.7 145.3
2270.7 10068.9 147.7
2295.1 10072.1 146.4
2319.5 10063.9 147.5
2343.9 10072.9 145.2
2368.4 10070.3 145.1
2391.8 10050.6 148.6
2416.2 10059.2 146.2
2440.6 10056.7 146.2
2465.0 10053.7 146.1
2488.5 10051.0 146.0
2511.9 10042.2 147.2
2536.3 10045.1 145.9
2560.7 10042.0 145.9
2584.2 10038.8 145.8
2606.6 10024.3 148.1
2632.0 10026.9 146.9
2655.5 10023.6 146.9
2679.9 10020.5 146.9
2702.3 10017.0 146.8
2727.7 10013.4 146.7
2752.1 10015.9 145.5
2772.7 10001.0 147.8
2799.0 10002.9 146.6
2822.5 9999.3 146.6
2846.9 10001.3 145.3
2871.3 10003.4 144.1
2895.7 9993.8 145.2
2918.2 9984.3 146.4
2941.6 9980.4 146.4
2968.0 9987.6 143.9
2989.5 9972.4 146.3
3014.8 9974.0 145.0
3038.3 9964.1 146.1
3062.7 9965.6 144.9
3086.1 9961.4 144.8
3109.6 9957.1 144.8
3133.0 9946.9 145.9
3156.4 9942.6 145.9
3177.0 9927.0 148.3
3205.3 9939.2 144.7
3228.7 9934.7 144.6
3254.1 9935.6 143.4
3276.6 9930.9 143.4
3300.0 9920.5 144.5
3323.4 9915.6 144.4
3346.9 9910.9 144.4
3369.3 9900.2 145.5
3393.8 9895.1 145.5
3417.2 9896.0 144.3
3443.6 9890.8 144.2
3466.0 9885.8 144.2
3490.4 9886.1 143.0
3511.9 9869.6 145.3
3536.3 9869.9 144.1
3558.8 9859.1 145.2
3582.2 9853.5 145.2
3608.6 9859.2 142.7
3631.1 9848.0 143.9
3658.4 9859.3 140.3
3677.0 9836.9 143.8
3701.4 9831.2 143.8
3724.8 9825.5 143.7
3747.3 9819.7 143.7
3771.7 9813.8 143.6
3795.1 9807.8 143.6
3817.6 9801.8 143.6
3841.0 9796.0 143.6
3865.4 9789.7 143.4
3887.9 9783.7 143.4
3912.3 9783.0 142.2
3936.7 9771.1 143.3
3959.2 9765.0 143.3
3983.6 9764.2 142.1
4005.1 9752.4 143.3
4031.4 9751.1 142.0
4052.0 9739.2 143.2
4073.4 9727.2 144.4
4098.8 9725.9 143.1
4121.3 9719.4 143.1
4144.7 9712.7 143.1
4174.0 9722.1 139.4
4191.6 9699.0 143.0
4220.9 9714.0 138.2
4242.4 9701.6 139.4
4262.9 9683.6 141.6
4288.3 9687.5 139.3
4314.6 9691.5 136.9
4341.0 9689.5 135.6
4365.4 9687.7 134.4
4387.9 9680.6 134.4
4412.3 9678.6 133.1
4437.7 9676.6 131.9
4461.1 9669.2 131.8
4481.6 9656.2 133.1
4503.1 9643.1 134.1
4530.5 9646.3 131.7
4556.8 9649.5 129.3
4579.3 9641.8 129.3
4602.7 9634.0 129.3
4630.1 9637.0 126.8
4644.7 9607.4 131.5
4672.1 9610.2 129.2
4694.5 9602.4 129.1
4721.9 9604.9 126.7
4744.3 9591.4 127.9
4769.7 9594.1 125.5
4793.2 9585.6 125.4
4815.6 9577.5 125.4
4839.1 9569.0 125.4
4863.5 9566.0 124.1
4884.0 9552.3 125.3
4912.3 9554.3 122.9
4934.8 9545.8 122.8
4959.2 9542.3 121.7
4979.7 9528.5 122.8
5005.1 9524.9 121.6
5032.4 9526.8 119.2
5054.9 9518.1 119.2
5077.3 9509.0 119.1
5104.7 9510.7 116.7
5127.1 9501.8 116.7
5148.6 9492.6 116.7
5178.9 9499.5 113.0
5201.4 9490.4 113.0
5223.8 9481.0 112.9
5244.3 9466.3 114.1
5274.6 9472.7 110.5
5296.1 9463.5 110.5
5316.6 9448.7 111.6
5337.1 9433.7 112.8
5359.6 9424.4 112.8
5385.9 9425.2 110.4
5404.5 9404.9 112.7
5430.9 9405.8 110.3
5453.3 9395.9 110.3
5476.8 9386.1 110.2
5498.2 9376.2 110.2
5523.6 9371.5 109.0
5547.1 9366.8 107.9
5570.5 9356.6 107.8
5588.1 9336.1 110.1
5610.5 9325.8 110.1
5634.0 9315.7 110.1
5664.3 9326.2 105.3
5682.8 9305.4 107.6
5704.3 9295.1 107.6
5732.6 9294.9 105.2
5746.3 9269.0 108.8
5780.5 9284.3 102.8
5793.2 9252.9 107.6
5825.4 9263.0 102.7
5843.0 9241.8 105.1
5870.3 9241.3 102.7
5889.8 9225.4 103.8
5911.3 9214.5 103.8
5930.9 9198.4 105.0
5952.3 9187.5 105.0
5980.7 9186.7 102.6
5996.3 9165.5 104.9
6023.6 9164.4 102.6
6046.1 9153.2 102.5
6067.6 9142.0 102.4
6089.1 9130.8 102.5
6111.5 9119.5 102.4
6137.9 9118.2 100.0
6159.4 9106.8 100.0
6177.0 9084.9 102.3
6203.3 9083.6 100.0
6220.9 9062.0 102.4
6249.2 9065.5 98.8
6266.8 9043.5 101.1
6285.4 9027.0 102.3
6309.8 9020.0 101.0
6337.1 9018.3 98.6
6352.7 8996.3 101.0
6374.2 8984.4 101.0
6402.5 8982.3 98.5
6420.1 8965.1 99.8
6443.6 8958.2 98.6
6465.0 8945.9 98.5
6481.6 8923.8 100.8
6499.2 8906.6 102.1
6519.7 8894.4 102.1
6545.1 8886.7 100.8
6565.6 8874.3 100.8
6584.2 8857.0 102.0
6607.6 8849.6 100.8
6633.0 8841.7 99.6
6646.7 8819.5 101.9
6667.2 8807.0 102.0
6695.5 8803.8 99.5
6718.9 8795.7 96.4
6736.5 8778.0 97.5
6764.8 8774.7 95.1
6780.5 8752.3 97.5
6808.8 8753.9 93.9
6830.3 8740.7 93.9
6849.8 8722.8 95.1
6875.2 8719.4 92.7
6895.7 8706.4 92.7
6921.1 8697.6 91.4
6941.6 8684.5 91.4
6961.1 8671.3 91.4
6980.7 8652.8 92.6
7003.1 8644.5 91.4
7026.6 8635.7 90.2
7052.0 8626.7 88.9
7075.4 8618.1 87.8
7092.0 8599.7 89.0
7119.3 8595.6 86.6
7140.8 8581.6 86.6
7160.4 8567.8 86.5
7186.7 8563.7 84.2
7208.2 8549.6 84.1
7228.7 8535.7 84.1
7258.0 8535.8 80.6
7278.5 8521.7 80.5
7309.8 8521.6 76.9
7329.3 8507.5 76.9
7349.8 8493.2 76.9
7366.4 8474.3 78.1
7397.7 8473.8 74.5
7414.3 8454.8 75.7
7440.6 8449.7 73.3
7465.0 8439.7 72.0
7495.3 8439.0 68.5
7522.7 8433.5 66.1
7542.2 8419.0 66.1
7562.7 8404.2 66.1
7592.0 8403.1 62.5
7613.5 8388.3 62.5
7629.1 8369.0 63.7
7655.5 8363.3 61.4
7679.9 8352.7 60.1
7700.4 8337.5 60.1
7717.0 8317.9 61.3
7735.5 8302.8 61.3
7756.1 8287.5 61.2
7782.4 8281.4 58.9
7799.0 8261.5 60.0
7822.5 8250.9 58.9
7845.9 8239.9 57.7
7853.7 8211.0 61.3
7873.2 8195.6 61.2
7900.6 8188.8 58.9
7920.1 8173.4 58.9
7928.9 8144.4 62.4
7959.2 8142.0 58.9
7979.7 8126.2 58.8
8002.1 8114.9 57.6
8013.9 8090.4 60.1
8034.4 8074.5 60.0
8060.7 8067.4 57.6
8083.2 8056.0 56.4
8103.7 8039.8 56.4
8122.3 8023.8 56.4
8141.8 8007.6 56.4
8168.2 8000.1 54.0
8186.7 7984.1 54.0
8213.1 7976.5 51.6
8236.5 7964.5 50.5
8263.9 7956.7 48.0
8282.4 7940.2 48.0
8308.8 7932.4 45.7
8327.3 7916.1 45.7
8354.7 7907.8 43.3
8369.3 7886.9 44.4
8390.8 7874.6 43.3
8415.2 7862.0 42.1
8443.6 7858.2 38.5
8460.2 7836.9 39.7
8486.5 7828.6 37.4
8512.9 7820.0 34.9
8539.3 7811.4 32.5
8556.8 7794.6 32.6
8592.0 7793.9 27.8
8610.5 7776.9 27.8
8636.9 7768.0 25.5
8655.5 7750.6 25.4
8677.9 7737.5 24.2
8708.2 7732.5 20.7
8726.8 7715.0 20.6
8745.3 7697.5 20.6
8775.6 7692.3 17.1
8798.0 7678.8 15.9
8824.4 7669.2 13.4
8846.9 7655.5 12.3
8865.4 7637.8 12.3
8894.7 7632.3 8.7
8927.0 7626.4 5.2
8940.6 7604.5 6.4
8969.9 7598.6 2.8
8997.3 7588.5 0.4
9014.8 7570.4 0.4
9041.2 7560.4 -1.9
9067.6 7549.9 -4.3
9087.1 7531.4 -4.4
9107.6 7517.3 -5.5
9141.8 7514.8 -10.2
9165.2 7500.1 -11.5
9186.7 7485.6 -12.7
9213.1 7475.0 -15.0
9235.5 7460.1 -16.2
9261.9 7449.3 -18.6
9287.3 7438.5 -21.0
9301.0 7415.8 -19.8
9327.3 7404.6 -22.1
9354.7 7393.3 -24.5
9375.2 7378.4 -25.7
9393.8 7359.1 -25.7
9420.1 7347.9 -28.1
9445.5 7336.4 -30.4
9474.8 7328.7 -34.0
9497.3 7313.2 -35.2
9522.7 7301.5 -37.6
9536.3 7278.6 -36.4
9567.6 7270.3 -40.0
9593.0 7258.4 -42.3
9614.5 7242.7 -43.5
9627.1 7219.3 -42.3
9663.3 7214.6 -47.0
9679.9 7195.0 -47.0
9718.9 7193.9 -53.0
9740.4 7177.7 -54.2
9757.0 7157.9 -54.1
9782.4 7145.6 -56.5
9801.0 7125.3 -56.6
9835.2 7120.1 -61.3
9847.9 7096.3 -60.0
9878.1 7087.0 -63.6
9909.4 7077.6 -67.2
9934.8 7064.8 -69.6
9965.0 7055.3 -73.1
9972.9 7027.7 -70.7
10003.1 7018.1 -74.3
10028.5 7004.8 -76.6
10058.8 6995.0 -80.2
10089.1 6984.9 -83.9
10110.5 6967.9 -84.9
10138.9 6957.9 -88.5
10165.2 6944.0 -90.9
10186.7 6926.7 -92.0
10220.9 6920.0 -96.8
10251.2 6909.5 -100.3
10272.7 6891.8 -101.6
10298.0 6877.6 -103.9
10323.4 6863.5 -106.2
10349.8 6849.0 -108.6
10375.2 6834.6 -111.0
10405.5 6823.6 -114.6
10436.7 6812.2 -118.2
10478.7 6811.5 -125.2
10504.1 6796.6 -127.6
10529.5 6781.8 -129.9
10565.6 6773.4 -134.8
10576.4 6748.4 -133.5
10601.8 6733.4 -135.9
10613.5 6708.0 -134.7
10629.1 6686.1 -134.6
10632.0 6654.1 -131.0
10647.7 6632.0 -131.0
10654.5 6603.3 -128.6
10670.1 6581.5 -128.6
10676.0 6552.9 -126.2
10692.6 6530.8 -126.2
10702.3 6505.3 -124.9
10727.7 6489.8 -127.3
10754.1 6473.8 -129.7
10750.2 6438.7 -124.9
10764.8 6416.6 -124.9
10780.5 6394.3 -124.8
10810.7 6381.4 -128.4
10810.7 6349.7 -124.7
10816.6 6320.9 -122.4
10837.1 6301.6 -123.6
10850.8 6279.3 -123.5
10870.3 6260.0 -124.7
10885.9 6237.4 -124.6
10892.8 6208.5 -122.2
10902.5 6182.8 -121.0
10922.1 6163.5 -122.2
10941.6 6143.8 -123.3
10946.5 6115.1 -120.9
10955.3 6089.4 -119.7
10969.9 6066.6 -119.7
10985.5 6043.7 -119.7
10994.3 6018.1 -118.5
11008.0 5995.4 -118.3
11018.8 5969.3 -117.2
11028.5 5943.2 -116.0
11021.7 5908.8 -111.1
11046.1 5891.7 -113.5
11065.6 5871.7 -114.7
11069.5 5843.1 -112.2
11069.5 5811.0 -108.6
11083.2 5788.3 -109.7
11096.9 5765.4 -109.7
11094.9 5733.8 -106.0
11104.7 5707.7 -104.8
11108.6 5678.8 -102.5
11132.0 5661.6 -104.7
11145.7 5638.4 -104.8
11154.5 5612.3 -103.6
11172.1 5592.0 -104.7
11170.1 5560.5 -101.1
11189.6 5539.9 -102.2
11192.6 5511.1 -99.8
11201.4 5485.4 -98.6
11215.0 5461.7 -98.6
11217.0 5433.1 -96.1
11239.5 5415.3 -98.5
11253.1 5392.0 -98.4
11271.7 5371.0 -99.7
11274.6 5342.2 -97.2
11276.6 5313.5 -94.8
11290.2 5289.9 -94.8
11307.8 5269.1 -95.9
11303.9 5237.7 -92.3
11327.3 5219.6 -94.7
11324.4 5187.8 -91.1
11331.2 5161.9 -89.8
11343.9 5138.1 -89.8
11345.9 5109.4 -87.4
11348.8 5080.5 -84.9
11361.5 5056.9 -84.9
11378.1 5035.9 -86.1
11369.3 5002.0 -81.3
11376.2 4975.6 -80.0
11377.1 4947.2 -77.6
11389.8 4923.2 -77.6
11406.4 4902.2 -78.7
11407.4 4873.5 -76.3
11420.1 4849.6 -76.3
11431.8 4825.9 -76.2
11448.4 4804.5 -77.4
11448.4 4775.9 -74.9
11456.2 4749.4 -73.7
11472.9 4727.9 -74.9
11483.6 4704.1 -74.8
11500.2 4682.4 -76.0
11501.2 4654.1 -73.6
11512.9 4630.0 -73.5
11523.6 4606.0 -73.5
11535.4 4582.0 -73.5
11535.4 4553.2 -71.0
11535.4 4524.5 -68.6
11557.8 4505.0 -71.0
11552.9 4474.0 -67.4
11562.7 4450.1 -67.2
11585.2 4430.3 -69.7
11573.4 4397.3 -64.8
11573.4 4368.6 -62.4
11557.8 4333.4 -56.3
11589.1 4318.1 -61.1
11594.9 4291.8 -59.9
11594.9 4263.1 -57.5
11616.4 4243.4 -59.8
11620.3 4217.1 -58.5
11614.5 4186.2 -54.9
11630.1 4164.1 -56.1
11630.1 4135.4 -53.7
11644.7 4113.5 -54.9
11648.6 4087.1 -53.5
11643.8 4056.5 -50.0
11663.3 4036.4 -52.4
11662.3 4007.9 -49.9
11687.7 3989.9 -53.4
11691.6 3963.2 -52.2
11691.6 3934.6 -49.7
11700.4 3910.6 -49.7
11699.4 3882.0 -47.3
11729.7 3865.6 -52.0
11728.7 3837.1 -49.6
11738.5 3812.5 -49.5
11725.8 3780.4 -44.7
11740.4 3757.7 -45.8
11749.2 3733.3 -45.8
11753.1 3706.9 -44.6
11766.8 3684.3 -45.7
11775.6 3659.7 -45.6
11774.6 3631.3 -43.3
11782.4 3606.8 -43.2
11791.2 3582.1 -43.1
11799.0 3557.6 -43.1
11798.0 3529.2 -40.7
11806.8 3504.5 -40.6
11825.4 3483.5 -43.0
11823.4 3455.1 -40.6
11837.1 3432.2 -41.6
11834.2 3404.1 -39.2
11843.0 3379.2 -39.2
11844.9 3352.7 -38.0
11852.7 3328.1 -37.9
11849.8 3300.0 -35.4
11842.0 3270.2 -31.8
11856.6 3246.8 -33.0
11863.5 3222.2 -32.9
11866.4 3195.7 -31.7
11885.0 3174.3 -34.0
11876.2 3144.6 -30.4
11893.8 3123.0 -32.8
11891.8 3094.9 -30.3
11892.8 3068.5 -29.1
11905.5 3045.1 -30.2
11913.3 3020.4 -30.2
11926.0 2996.9 -31.4
11927.9 2970.3 -30.0
11939.6 2947.3 -31.2
11930.9 2917.6 -27.6
11937.7 2892.7 -27.5
11932.8 2864.9 -25.1
11940.6 2839.7 -25.0
11952.3 2816.4 -26.1
11959.2 2791.3 -26.1
11967.0 2766.2 -26.0
11978.7 2742.6 -27.1
11979.7 2716.3 -25.9
11986.5 2691.4 -25.9
11976.8 2662.0 -22.3
11999.2 2640.9 -25.8
11988.5 2612.0 -22.1
12007.0 2589.5 -24.5
11997.3 2560.4 -20.9
12003.1 2535.5 -20.8
12019.7 2513.0 -23.1
12021.7 2486.5 -21.9
12026.6 2461.4 -21.8
12027.5 2434.8 -20.6
12033.4 2409.7 -20.6
12039.3 2384.6 -20.5
12039.3 2358.2 -19.3
12039.3 2331.9 -17.9
12046.1 2306.3 -18.0
12039.3 2279.1 -15.5
12061.7 2257.5 -19.0
12067.6 2232.1 -19.0
12078.3 2208.0 -20.1
12078.3 2181.6 -18.8
12090.0 2157.4 -20.0
12094.9 2132.2 -19.9
12093.0 2105.9 -18.6
12115.4 2083.8 -22.1
12104.7 2055.1 -18.5
12114.5 2031.0 -19.7
12102.7 2002.5 -16.0
12119.3 1979.1 -18.4
12112.5 1951.9 -15.9
12111.5 1925.4 -14.7
12115.4 1900.3 -14.6
12132.0 1876.7 -17.0
12125.2 1849.3 -14.5
12118.4 1822.3 -12.1
12135.0 1798.7 -14.4
12144.7 1774.2 -15.5
12154.5 1749.7 -16.7
12140.8 1721.8 -13.0
12169.1 1699.8 -17.7
12167.2 1673.3 -16.5
12148.6 1644.7 -11.6
12186.7 1624.1 -18.7
12157.4 1593.8 -11.5
12155.5 1567.5 -10.2
12148.6 1540.5 -7.9
12140.8 1513.5 -5.4
12138.9 1487.4 -4.1
12153.5 1463.5 -6.4
12169.1 1439.4 -8.8
12177.9 1414.7 -9.9
12186.7 1390.0 -11.0
12191.6 1364.3 -11.0
12211.1 1341.1 -14.5
12242.4 1318.9 -20.3
12223.8 1290.5 -15.5
12249.2 1267.5 -20.2
12257.0 1242.7 -21.3
12288.3 1219.9 -27.1
12309.8 1196.1 -30.7
12311.7 1170.3 -30.6
12338.1 1146.8 -35.3
12340.0 1121.0 -35.3
12343.9 1095.0 -35.2
12341.0 1068.8 -33.9
12332.2 1041.7 -31.5
12317.6 1014.4 -27.9
12286.3 985.7 -20.7
12282.4 959.4 -19.4
12286.3 933.5 -19.4
12282.4 907.6 -18.1
12289.3 882.3 -19.2
12280.5 855.8 -16.7
12289.3 830.3 -17.9
12285.4 804.2 -16.7
12287.3 778.5 -16.5
12306.8 753.8 -20.1
12297.1 727.5 -17.6
12298.0 701.8 -17.5
12282.4 675.1 -13.9
12291.2 649.6 -15.1
12298.0 624.3 -16.2
12288.3 598.0 -13.7
12307.8 572.9 -17.2
12302.9 546.9 -16.0
12299.0 521.0 -14.7
12300.0 495.1 -14.6
12302.0 469.4 -14.6
12290.2 443.4 -12.1
12292.2 417.5 -12.0
12294.1 391.9 -12.0
12295.1 366.0 -11.9
12311.7 341.0 -15.4
12308.8 314.9 -14.1
12298.0 288.9 -11.8
12286.3 263.2 -9.3
12309.8 237.8 -13.9
12300.0 211.7 -11.5
12311.7 186.1 -13.8
12317.6 160.6 -14.9
12313.7 134.7 -13.7
12318.6 108.9 -14.8
12307.8 83.1 -12.3
12313.7 57.6 -13.4
12319.5 31.6 -14.6
12320.5 5.9 -14.5
12326.4 -20.0 -15.6
12308.8 -45.8 -12.0
12314.6 -71.4 -13.0
12326.4 -97.3 -15.4
12326.4 -123.2 -15.4
12326.4 -148.9 -15.2
12348.8 -175.2 -19.9
12330.3 -200.4 -16.3
12319.5 -226.1 -13.8
12325.4 -252.2 -14.9
12329.3 -277.8 -16.0
12330.3 -303.9 -16.0
12341.0 -329.9 -18.2
12316.6 -354.9 -13.4
12327.3 -381.2 -15.7
12333.2 -407.2 -16.9
12337.1 -433.2 -18.0
12337.1 -458.9 -17.9
12347.9 -485.4 -20.2
12335.2 -510.7 -17.7
12350.8 -537.3 -21.2
12338.1 -562.5 -18.8
12343.0 -588.7 -19.9
12347.9 -614.9 -21.0
12345.9 -640.8 -20.9
12356.6 -667.2 -23.2
12355.7 -693.1 -23.2
12346.9 -718.5 -21.8
12335.2 -743.5 -19.5
12338.1 -769.8 -20.5
12343.0 -795.9 -21.7
12335.2 -821.3 -20.4
12333.2 -847.2 -20.3
12343.0 -873.8 -22.6
12346.9 -900.0 -23.7
12344.9 -925.9 -23.6
12343.0 -951.8 -23.5
12340.0 -977.5 -23.4
12338.1 -1003.3 -23.4
12337.1 -1029.3 -23.4
12345.9 -1056.2 -25.7
12366.4 -1084.2 -30.3
12358.6 -1109.7 -29.1
12355.7 -1135.2 -28.9
12359.6 -1161.8 -30.0
12338.1 -1185.7 -26.4
12359.6 -1214.2 -31.1
12356.6 -1240.1 -31.1
12353.7 -1265.8 -30.9
12351.8 -1291.6 -30.9
12347.9 -1317.4 -30.7
12368.4 -1346.1 -35.4
12347.9 -1369.8 -31.8
12344.9 -1395.4 -31.7
12342.0 -1421.4 -31.6
12338.1 -1447.3 -31.5
12341.0 -1473.7 -32.6
12331.2 -1498.8 -31.4
12334.2 -1525.3 -32.5
12331.2 -1551.1 -32.4
12338.1 -1578.5 -34.7
12317.6 -1601.6 -31.0
12330.3 -1629.9 -34.5
12333.2 -1656.7 -35.6
12323.4 -1681.6 -34.4
12325.4 -1708.2 -35.4
12344.9 -1737.8 -40.1
12311.7 -1758.7 -34.2
12325.4 -1787.3 -37.6
12332.2 -1814.9 -39.8
12334.2 -1841.7 -40.9
12311.7 -1864.2 -37.3
12313.7 -1891.1 -38.4
12332.2 -1920.9 -43.1
12328.3 -1946.6 -43.0
12322.5 -1972.4 -42.9
12324.4 -1999.3 -44.1
12308.8 -2022.8 -41.6
12314.6 -2050.7 -43.8
12309.8 -2076.3 -43.8
12304.9 -2102.1 -43.7
12317.6 -2131.0 -47.2
12305.9 -2155.6 -45.8
12291.2 -2179.0 -43.4
12297.1 -2206.9 -45.7
12302.9 -2235.0 -48.0
9308.8 -1622.1 582.7
9187.7 -1615.2 607.5
9173.0 -1630.9 609.9
9094.9 -1632.9 625.4
8968.9 -1623.6 651.4
8932.8 -1633.8 658.6
8949.4 -1656.4 653.9
8908.4 -1665.3 662.2
8882.0 -1677.8 667.1
8676.0 -1647.8 709.7
8689.6 -1668.9 706.2
8509.0 -1643.8 744.4
8436.7 -1644.0 758.7
8405.5 -1653.8 764.6
8330.3 -1652.3 780.0
8298.0 -1661.5 786.0
8221.9 -1659.4 801.4
8212.1 -1673.8 802.7
8093.0 -1659.7 827.5
8060.7 -1667.9 833.6
8022.7 -1674.7 840.7
7980.7 -1680.0 849.0
7910.4 -1677.5 863.2
7861.5 -1680.7 872.8
7852.7 -1694.1 874.0
7755.1 -1683.3 894.1
7806.8 -1713.6 882.3
7724.8 -1706.7 899.0
7650.6 -1701.4 914.4
7668.2 -1722.2 909.7
7636.9 -1728.9 915.7
7584.2 -1729.1 926.3
7535.4 -1730.5 935.8
7493.4 -1733.4 944.2
7450.4 -1736.1 952.5
7435.7 -1746.9 954.9
7376.2 -1744.4 966.8
7334.2 -1746.4 975.1
7325.4 -1758.7 976.3
7277.5 -1758.8 985.9
7213.1 -1753.4 998.9
7198.4 -1763.5 1001.3
7211.1 -1782.3 997.8
7189.6 -1790.6 1001.4
7136.9 -1788.2 1012.0
7073.4 -1782.0 1025.1
7139.8 -1818.5 1009.8
7059.8 -1806.4 1026.4
7011.9 -1805.2 1035.8
7051.0 -1832.9 1026.5
7078.3 -1857.2 1019.5
7107.6 -1881.6 1012.4
7125.2 -1902.5 1007.8
7213.1 -1948.0 987.7
7089.1 -1919.7 1013.7
7057.8 -1923.3 1019.7
6804.9 -1847.6 1074.0
6778.5 -1852.6 1078.8
6726.8 -1847.3 1089.5
6695.5 -1850.0 1095.4
6685.7 -1860.3 1096.6
6637.9 -1856.6 1106.2
6623.2 -1864.9 1108.5
6582.2 -1863.0 1116.9
6583.2 -1876.9 1115.7
6541.2 -1874.6 1124.0
6542.2 -1888.7 1122.9
6505.1 -1888.2 1130.1
6538.3 -1914.4 1121.8
6491.4 -1909.8 1131.3
6530.5 -1938.6 1121.9
6466.0 -1927.0 1135.0
6532.4 -1966.8 1119.6
6416.2 -1933.6 1144.5
6458.2 -1964.6 1133.9
6417.2 -1961.0 1142.2
6427.9 -1979.2 1138.7
6434.8 -1995.6 1136.4
6424.0 -2004.7 1137.6
6420.1 -2016.7 1137.6
6463.1 -2048.4 1127.1
6485.5 -2071.3 1121.2
6442.6 -2067.2 1129.6
6492.4 -2101.8 1117.7
6517.8 -2127.4 1110.8
6470.9 -2120.8 1120.3
6492.4 -2144.1 1114.4
6467.0 -2146.8 1119.2
6466.0 -2160.6 1118.1
6440.6 -2163.0 1122.9
6421.1 -2167.8 1126.4
6482.6 -2210.3 1111.1
6487.5 -2226.9 1108.8
6514.8 -2253.0 1101.8
6457.2 -2240.8 1113.6
6551.0 -2298.5 1091.3
6468.0 -2274.2 1109.0
6468.0 -2288.2 1107.9
6498.2 -2317.2 1099.6
6410.4 -2289.4 1118.5
6896.7 -2537.0 1006.6
7282.4 -2739.3 917.1
7251.2 -2740.5 923.1
7193.6 -2729.1 934.9
7248.2 -2772.9 920.8
7144.7 -2738.1 943.2
7106.6 -2735.9 950.5
6927.0 -2662.1 990.6
6834.2 -2631.1 1010.6
6694.5 -2576.2 1041.3
6592.0 -2539.1 1063.7
6815.6 -2668.7 1010.8
6422.1 -2481.6 1100.3
6359.6 -2464.2 1113.4
6348.8 -2472.9 1114.6
6415.2 -2521.8 1098.1
7427.9 -3071.6 861.5
6621.3 -2660.8 1047.6
6609.6 -2670.1 1048.8
6587.1 -2673.9 1052.4
6516.8 -2650.7 1067.7
6495.3 -2654.3 1071.2
6518.8 -2682.5 1064.3
6542.2 -2711.0 1057.3
6476.8 -2689.6 1071.5
6425.0 -2676.1 1082.1
6384.0 -2668.4 1090.4
6392.8 -2688.4 1086.9
6431.8 -2725.3 1076.4
6365.4 -2702.8 1090.5
6358.6 -2714.3 1090.6
6392.8 -2748.9 1081.2
6382.0 -2757.5 1082.4
6433.8 -2803.5 1068.4
6508.0 -2861.6 1049.6
6510.9 -2879.1 1047.4
6532.4 -2908.4 1040.4
6536.3 -2926.1 1038.0
6476.8 -2905.8 1051.0
6478.7 -2923.4 1048.7
6392.8 -2887.6 1067.6
6426.0 -2923.1 1058.2
6393.8 -2919.6 1064.2
6407.4 -2943.3 1059.5
6450.4 -2985.2 1047.7
6418.2 -2981.6 1053.7
6430.9 -3005.3 1049.1
6428.9 -3019.9 1047.9
6417.2 -3028.6 1049.1
6400.6 -3034.2 1051.5
6430.9 -3070.2 1042.2
6444.5 -3094.3 1037.5
6485.5 -3137.0 1025.9
6492.4 -3157.9 1022.4
6374.2 -3097.9 1049.5
11421.1 -6407.5 -187.2
11414.3 -6437.2 -189.4
11394.7 -6457.5 -188.2
11380.1 -6481.0 -188.1
11375.2 -6510.8 -190.3
11363.5 -6537.0 -191.4
11358.6 -6566.9 -193.7
11352.7 -6596.7 -195.9
11327.3 -6613.4 -193.4
11325.4 -6646.3 -196.8
11320.5 -6676.2 -199.1
11295.1 -6692.9 -196.6
11264.8 -6706.3 -193.0
11245.3 -6726.1 -191.8
11209.2 -6735.8 -186.9
11155.5 -6732.3 -177.4
11117.4 -6738.6 -171.4
11059.8 -6731.6 -160.8
11024.6 -6740.5 -155.9
10975.8 -6739.7 -147.6
10946.5 -6752.3 -144.0
10880.1 -6737.3 -131.0
10849.8 -6749.3 -127.3
10797.1 -6744.3 -117.8
10754.1 -6745.8 -110.7
10700.4 -6740.3 -101.2
10671.1 -6751.8 -97.6
10618.4 -6746.0 -88.1
10580.3 -6750.2 -82.1
10527.5 -6744.2 -72.6
10502.1 -6758.5 -70.1
10454.3 -6755.4 -61.8
10425.0 -6766.2 -58.2
10382.0 -6765.9 -51.0
10353.7 -6776.6 -47.5
10313.7 -6779.9 -41.5
10298.0 -6800.5 -41.4
10273.6 -6814.4 -39.0
10247.3 -6827.9 -36.4
10226.8 -6845.0 -35.2
10206.2 -6862.0 -33.9
10191.6 -6882.6 -33.8
10175.0 -6903.2 -33.7
10148.6 -6916.4 -31.2
10134.0 -6936.8 -31.2
10117.4 -6957.3 -31.1
10095.9 -6973.7 -29.8
10084.2 -6997.7 -30.9
10058.8 -7010.7 -28.4
10047.1 -7034.5 -29.5
10016.8 -7043.6 -25.9
10014.8 -7074.9 -29.3
9993.4 -7091.3 -28.1
9975.8 -7111.3 -27.9
9951.4 -7123.8 -25.5
9933.8 -7143.8 -25.4
9912.3 -7159.9 -24.1
9896.7 -7179.8 -24.0
9888.9 -7207.3 -26.3
9857.6 -7215.5 -22.6
9848.8 -7242.7 -24.8
9815.6 -7247.4 -20.1
9799.0 -7267.0 -20.0
9786.3 -7290.3 -21.1
9764.8 -7306.1 -19.8
9751.2 -7329.4 -20.9
9717.0 -7333.5 -16.1
9703.3 -7356.5 -17.1
9675.0 -7364.6 -13.5
9661.3 -7387.4 -14.6
9652.5 -7414.6 -16.9
9634.0 -7433.6 -16.8
9614.5 -7449.1 -15.5
9599.8 -7472.2 -16.6
9578.3 -7487.2 -15.3
9548.0 -7494.4 -11.7
6582.2 -4719.8 817.9
6548.0 -4707.2 824.2
6515.8 -4699.3 830.1
6467.0 -4675.0 840.8
6381.1 -4615.0 861.9
6347.9 -4602.8 868.9
6328.3 -4606.0 871.4
6296.1 -4597.1 877.3
6273.6 -4596.4 880.8
6246.3 -4591.5 885.6
6222.9 -4590.5 889.2
6196.5 -4585.2 894.0
6181.8 -4592.4 895.2
6171.1 -4603.3 895.2
6143.8 -4597.9 900.0
6109.6 -4584.3 907.1
6082.2 -4578.7 911.8
6063.7 -4581.2 914.2
6041.2 -4579.5 917.7
6022.7 -4581.9 920.1
6000.2 -4580.1 923.7
5976.8 -4578.0 927.3
5955.3 -4576.2 930.9
5940.6 -4582.5 932.1
5914.3 -4576.1 936.8
5895.7 -4578.1 939.2
5869.3 -4571.6 944.0
5854.7 -4577.6 945.2
5835.2 -4579.3 947.6
5824.4 -4589.5 947.6
5798.0 -4582.7 952.3
5772.7 -4575.6 957.2
5755.1 -4577.4 959.5
5739.5 -4582.9 960.8
5710.2 -4571.5 966.6
5699.4 -4581.3 966.7
5681.8 -4582.7 969.1
5662.3 -4583.7 971.4
5643.8 -4584.8 973.9
5626.2 -4586.0 976.3
5604.7 -4582.7 979.8
5581.2 -4579.0 983.5
5567.6 -4584.3 984.6
5550.0 -4585.2 987.0
5531.4 -4585.9 989.4
5524.6 -4599.5 988.4
5506.1 -4600.3 990.7
5480.7 -4592.1 995.4
5459.2 -4588.3 999.0
5448.4 -4597.6 999.0
5423.0 -4589.0 1003.7
5408.4 -4593.8 1005.0
5389.8 -4594.0 1007.4
5376.2 -4598.6 1008.6
5357.6 -4598.7 1011.0
5346.9 -4607.8 1011.1
5321.5 -4598.8 1015.8
5311.7 -4607.9 1015.8
5297.1 -4612.1 1017.0
5278.5 -4612.1 1019.4
5261.9 -4612.1 1021.8
5250.2 -4620.7 1021.9
5236.5 -4624.9 1023.1
5204.3 -4606.4 1030.2
5185.7 -4605.9 1032.6
5171.1 -4609.9 1033.8
5151.6 -4605.2 1037.3
5139.8 -4613.4 1037.3
5118.4 -4608.1 1041.0
5103.7 -4612.0 1042.1
5083.2 -4606.6 1045.7
5072.5 -4615.1 1045.7
5051.0 -4609.4 1049.3
5027.5 -4599.5 1054.0
5015.8 -4607.5 1054.1
5002.1 -4611.1 1055.3
4982.6 -4605.4 1058.9
4973.8 -4618.1 1057.7
4967.0 -4630.8 1056.6
4931.8 -4606.0 1064.9
4921.1 -4614.2 1064.9
4911.3 -4622.2 1064.9
4889.8 -4616.1 1068.5
4873.2 -4614.6 1070.9
4858.6 -4617.7 1072.1
4834.2 -4606.7 1076.8
4823.4 -4614.4 1076.9
4802.9 -4607.9 1080.4
4788.3 -4610.8 1081.6
4770.7 -4608.9 1084.0
4758.0 -4612.0 1085.2
4740.4 -4609.9 1087.6
4728.7 -4617.2 1087.7
4718.0 -4624.8 1087.7
4701.4 -4622.7 1090.0
4678.9 -4611.0 1094.8
4658.4 -4604.2 1098.3
4644.7 -4606.7 1099.5
4631.1 -4609.2 1100.8
4610.5 -4601.9 1104.3
4599.8 -4609.1 1104.3
4589.1 -4616.3 1104.4
4568.6 -4608.8 1108.0
4551.0 -4606.1 1110.4
4534.4 -4603.7 1112.7
4516.8 -4600.9 1115.1
4509.0 -4612.8 1114.0
4490.4 -4605.2 1117.4
4479.7 -4612.1 1117.6
4471.9 -4624.0 1116.4
4461.1 -4630.7 1116.5
4434.8 -4613.0 1122.3
4415.2 -4605.0 1125.9
4410.4 -4621.5 1123.7
4388.9 -4608.8 1128.3
4375.2 -4610.5 1129.5
4357.6 -4607.2 1131.9
4344.9 -4608.9 1133.1
4330.3 -4610.3 1134.4
4316.6 -4611.9 1135.6
4300.0 -4608.5 1138.0
4290.2 -4615.1 1138.0
4276.6 -4616.4 1139.2
4265.8 -4622.6 1139.2
4249.2 -4619.2 1141.6
4246.3 -4640.4 1138.1
4232.6 -4641.7 1139.4
4205.3 -4618.0 1146.4
4188.7 -4614.1 1148.8
4175.0 -4615.2 1150.0
4163.3 -4621.5 1150.0
4150.6 -4622.5 1151.2
4135.0 -4618.5 1153.6
4117.4 -4614.4 1156.0
4106.6 -4620.4 1156.1
4093.9 -4621.4 1157.2
4077.3 -4617.1 1159.6
4066.6 -4623.1 1159.7
4050.0 -4618.8 1162.0
4039.3 -4624.5 1162.1
4031.4 -4635.7 1161.0
4026.6 -4651.5 1158.7
4012.9 -4652.3 1159.9
3986.5 -4627.4 1166.9
3975.8 -4633.0 1166.9
3963.1 -4633.6 1168.2
3949.4 -4634.0 1169.4
3932.8 -4629.2 1171.8
